-0.369005 1.576740 -0.046022
-5.655150 13.621200 2.895280
5.581510 12.573200 2.316120
-1.777410 8.090440 1.719670
3.345560 7.267510 -1.265120
-2.172640 12.769200 -0.983935
2.562590 9.595110 2.453570
1.217270 5.113290 1.686110
-2.775620 11.860100 2.268470
-2.150380 4.718570 1.275380
2.640180 7.241530 1.539240
-3.673180 11.139300 0.130630
-0.272905 3.408170 1.387810
4.670200 9.965560 2.332240
-0.623349 6.190480 1.582970
-3.754500 8.238500 1.517620
-2.907680 6.497340 1.427420
-3.585470 12.915100 0.415745
1.499890 3.200570 1.252680
-2.091900 11.807300 0.460684
1.083500 2.312030 -0.370069
-4.099510 14.022100 2.980490
0.010434 0.027449 -0.006140
-2.541400 11.203000 -0.863251
-2.518320 13.166400 1.598410
0.460508 2.198930 1.002110
-3.569740 12.210000 -0.857154
-0.711159 4.767370 1.572040
-1.022770 2.244270 1.022770
-1.572290 3.450080 1.242960
3.711920 9.016960 2.305730
-4.715900 12.815300 2.541850
-1.808650 5.887120 1.462710
-2.721310 8.857790 1.694220
-0.592312 7.397080 1.731140
3.545320 10.379000 2.503760
0.567319 6.248900 1.734810
-3.124960 11.882600 1.033060
-0.176155 2.654330 -0.462061
0.607490 4.157840 1.434200
1.951280 4.238730 1.462100
-1.635450 6.988180 1.585270
-3.400000 13.296300 -0.660475
-2.451460 12.816800 0.150302
1.679820 7.056250 1.907230
0.664787 1.444110 0.026783
0.223874 5.225650 1.566530
-1.027650 2.296340 -0.145479
-3.511700 11.158900 -0.859856
-2.754120 11.084800 0.432495
-4.890100 13.869300 2.457230
0.592295 3.147810 1.281790
2.568310 10.471100 2.375360
-0.315473 0.745467 -0.318834
-0.903506 3.982830 1.313340
-2.059580 11.180600 -0.173808
-0.260051 2.582570 1.176950
-2.603940 5.713820 1.337210
-1.090510 5.498030 1.566800
-0.033355 6.795000 1.639180
-0.152341 1.752280 0.769880
0.330981 2.162180 -0.107403
-2.849910 8.082910 1.660560
-0.212271 0.935731 0.426437
-0.925351 3.011990 1.250500
-2.876040 12.678100 -0.716449
-0.137789 4.280410 1.476480
3.369340 9.648320 2.537380
-1.445420 4.485990 1.411740
-3.608590 12.662800 -0.283213
-2.212100 6.557740 1.629330
-0.966330 6.795100 1.737580
-2.073710 11.704600 -0.741519
-3.363890 7.656360 1.464420
-4.753830 13.781700 3.126380
1.244900 3.813700 1.433000
4.346990 9.275890 2.304680
0.329227 0.702524 0.080431
-2.774880 13.054800 2.221230
1.004060 2.588200 1.137150
1.171010 5.788020 1.606860
3.994950 9.895630 2.315870
-1.663390 5.162480 1.433200
2.063550 6.959470 1.331130
-0.028891 5.885610 1.677250
-2.130740 12.522900 0.659722
-3.047510 11.588100 -0.654849
1.327910 4.478470 1.544790
-0.846029 1.890490 0.497173
-2.052050 12.578400 -0.367139
-0.431330 5.386650 1.614790
0.235707 1.053680 -0.450657
0.697240 1.834290 -0.557519
0.858726 2.046260 0.523251
-1.405690 6.398450 1.497430
2.321120 6.949690 1.980490
-2.140070 11.188800 0.436554
-3.886620 12.965100 -0.821373
-0.465207 2.117540 -0.309387
-2.329810 7.771830 1.651950
2.975050 10.033600 2.276120
-5.461030 13.677300 2.327160
5.037920 12.728400 2.524620
-1.821170 3.996200 1.227720
-2.534190 11.922400 1.118470
-6.006120 13.421000 2.472290
1.785850 5.113900 1.571100
0.107726 1.283710 0.067628
3.143040 7.489570 -0.783056
-3.363200 12.788500 -0.985424
-2.220180 5.246320 1.456470
-3.505120 11.409100 -0.333008
0.252438 3.595950 1.323270
-3.106690 11.494000 0.291571
0.361273 4.688470 1.546030
0.692016 5.523900 1.697070
0.281293 2.690440 1.226100
3.021350 9.255810 2.366800
-0.488038 2.151370 0.945223
-0.189678 4.861430 1.529890
3.073470 10.630900 2.335520
0.349125 2.640740 -0.441167
-1.191020 4.937240 1.443460
0.810773 1.969520 0.023096
-2.278230 6.063130 1.550400
-1.050480 3.504220 1.262460
1.711370 3.651840 1.372180
-0.634289 1.417350 0.341911
-2.923970 12.889400 1.654030
0.740140 5.065740 1.518590
-0.484983 1.064200 0.034257
-0.816372 1.791360 -0.212022
-5.191510 13.816400 2.838450
0.788726 3.642230 1.425540
-3.300020 8.265010 1.697970
-1.341290 5.912680 1.598130
-0.505587 6.905420 1.616080
-0.447560 3.909220 1.468890
0.866881 4.607120 1.589170
-0.048390 1.907580 -0.212600
0.042300 0.465923 -0.203043
-0.026862 2.290650 0.896544
-2.347210 8.236520 1.692120
-1.368450 3.002790 1.105000
-2.149830 6.997630 1.487390
-0.448732 3.008150 1.201080
0.055347 6.342180 1.714220
-3.225550 12.614100 -0.024080
-3.772930 12.585800 0.147593
1.045040 3.201450 1.354810
-1.359380 3.855480 1.300560
0.133256 3.110470 1.341390
-3.331500 11.113300 0.433607
-4.493260 13.945200 2.765960
-0.645123 4.324690 1.491750
-2.373560 12.885000 -0.464027
-0.697911 5.748820 1.680730
-1.219680 7.168390 1.574840
-0.185375 1.187170 -0.546507
-0.184280 7.264470 1.595950
-2.563300 6.821800 1.498700
2.459260 10.026500 2.491170
-2.284560 12.401900 -0.700837
0.696983 2.473900 -0.224598
0.564349 1.812260 0.825897
-1.848100 6.321270 1.479370
0.320295 5.667880 1.531970
-2.724810 6.088720 1.512800
-1.019240 4.493000 1.346900
-2.133590 12.539600 0.061554
-0.569126 2.590560 -0.306613
-3.320850 12.986800 -0.379058
3.564690 9.988410 2.337590
-2.148760 11.234200 -0.711719
-2.469220 11.616800 -0.895138
0.293480 1.620440 -0.102659
-0.806382 5.164190 1.471670
-2.770990 11.840300 1.848850
-3.050670 11.286700 -0.947149
1.555690 4.092700 1.474470
-0.072654 0.835693 0.044025
0.483209 1.088500 0.147231
-1.367230 8.035540 1.765350
-0.074931 2.327720 -0.227338
4.312850 10.083900 2.505430
-2.932560 8.501710 1.686280
-2.437600 11.468000 0.369162
-2.866720 11.883600 1.360540
-2.797000 11.951500 0.793161
3.407420 9.345940 2.254550
1.698120 4.657640 1.535860
-1.751530 4.759710 1.356400
-0.666466 3.360130 1.288780
2.053580 7.103150 1.713510
-2.243480 12.178900 0.392046
0.227195 4.020400 1.479470
-2.212440 5.652730 1.445460
-3.587690 12.589500 -0.711437
-0.388174 6.521700 1.573250
-1.883130 4.366680 1.374190
0.489176 1.937200 0.411765
-0.649334 2.469080 1.125220
-3.456690 11.530900 -0.730513
0.826077 5.936570 1.735620
1.036780 4.226970 1.458040
2.461800 6.898070 1.614360
0.198582 2.033290 0.701358
4.387580 9.704720 2.411230
-1.550490 5.584980 1.550490
3.185130 10.228200 2.541300
-3.481190 12.539500 0.403654
-1.039740 6.373270 1.629710
-3.139990 13.016400 -0.735565
-0.064492 5.499420 1.607820
3.024410 7.491560 -1.146790
-0.666808 1.812030 0.825788
-2.564170 12.927800 1.928470
-1.222750 4.182320 1.442640
-3.105990 11.810400 2.092460
-3.964220 12.596900 -0.798046
-1.341730 6.764590 1.729780
-5.978940 13.360200 2.839810
-2.528090 6.459220 1.419040
-0.284115 6.197020 1.766000
2.928250 9.634210 2.393710
-0.906681 7.065520 1.401410
0.639373 2.103600 -0.307351
1.738070 7.086140 1.455780
-0.757473 2.297110 -0.448464
0.724660 2.789500 1.271250
4.042390 9.451530 2.416850
-0.326619 1.277300 0.499925
3.736800 9.632490 2.323670
-2.522410 12.717200 -0.805673
-2.417520 12.639400 -0.196487
-0.096607 3.808340 1.460690
-0.700400 6.510120 1.759610
2.802280 10.212800 2.537460
3.878550 10.203600 2.461450
-5.316920 13.584600 3.081670
0.298882 6.016930 1.626310
-3.220740 12.595300 -0.711765
-3.284490 12.844600 0.238219
0.812402 2.228270 1.015480
-3.565160 7.966520 1.636650
1.456180 4.911080 1.508790
-1.845220 5.470120 1.398770
-2.092290 11.358100 0.133196
2.406880 6.892250 1.269630
-0.763278 7.094560 1.762710
-3.545680 13.118100 -0.920902
-3.689430 12.946500 -0.466242
-4.374520 13.900600 3.153370
-1.930220 6.773290 1.633940
-0.184601 1.182210 -0.091096
-2.003460 7.834890 1.777350
0.315060 0.736642 -0.339110
-0.498181 1.382800 -0.299447
-2.765430 11.463700 -0.804764
-0.625507 2.036010 -0.017768
-0.345905 5.811530 1.570790
0.305336 4.349460 1.434240
-0.708305 3.703190 1.305690
-0.029483 1.589710 0.007804
-1.356470 5.304720 1.472690
-0.132495 2.889930 1.246280
-3.342410 11.149700 0.054731
-3.435570 11.460400 0.368919
0.506061 3.827780 1.408590
5.240440 12.730000 2.255390
-0.505053 5.015690 1.466390
5.378790 12.576200 2.583660
-1.027790 6.040600 1.588600
0.597037 2.507920 1.142930
-2.324970 12.621200 0.406285
-2.378180 11.990100 0.631654
-3.238190 7.952300 1.577300
-0.634474 1.392230 0.006834
-0.096111 5.182210 1.515080
-2.098680 12.864300 -0.639015
0.188705 0.966580 -0.101059
-0.361695 4.517020 1.489490
-0.823762 2.104700 0.807259
-4.817090 13.965100 2.769910
0.736815 1.789860 -0.236633
-1.604650 6.101660 1.604650
-5.722720 13.522900 2.586510
0.179908 1.033490 0.256780
1.327500 2.936240 1.314020
-2.438520 11.099700 0.357306
-3.555050 12.805500 0.062859
1.295070 3.407060 1.387360
-0.740537 5.474880 1.519930
0.276325 6.449960 1.509480
0.858260 3.963330 1.489220
-2.749410 11.397300 0.366887
0.214518 2.362870 -0.361702
-2.476560 5.434310 1.468830
-0.003879 0.790275 -0.363799
-3.699060 11.217700 0.437683
0.011033 0.709699 0.323428
-1.273860 3.254680 1.273860
2.343600 7.348990 1.509780
-2.183850 12.835100 -0.112010
0.055549 2.483680 1.131880
-1.517300 4.123210 1.328530
3.284340 9.833680 2.301380
-3.710810 12.692600 -0.978032
-5.168160 13.754200 2.533680
-4.211330 14.048200 2.686990
-1.985280 4.972210 1.343930
3.387880 7.359430 -0.972971
-0.922374 2.061090 -0.315506
2.713870 9.890560 2.385930
0.476706 1.887820 -0.106682
-1.645540 3.745310 1.291900
0.934157 2.029250 -0.268282
0.392148 1.322550 -0.038603
-0.300790 2.016400 -0.072616
2.380940 10.313000 2.562350
-0.273104 6.999620 1.789870
0.516199 5.285380 1.506200
-1.470870 4.787640 1.470870
3.759200 9.311650 2.246270
-3.072670 11.068000 0.280764
-0.342083 2.405480 -0.385026
0.616753 4.432270 1.562750
1.420140 5.317440 1.594040
0.573400 3.432250 1.397620
-0.191377 2.039990 0.929678
0.108370 4.845330 1.488590
-2.926310 12.899800 2.014280
-5.476430 13.715900 2.623430
1.075350 5.508140 1.651210
-5.036290 13.685900 3.104660
-2.863430 11.197900 -0.709420
-2.284460 11.517600 -0.650866
4.000180 9.011000 2.238870
-0.939761 5.760450 1.514920
0.193004 6.612430 1.738980
-3.383880 12.867100 -0.639157
0.658624 2.166940 0.698206
-0.352421 0.787501 0.111990
2.823800 10.573200 2.474440
3.182280 9.528110 2.229860
-3.263740 11.452700 -0.178039
0.196702 2.344000 0.720128
-3.142750 11.320400 0.519006
-2.068640 5.867060 1.585800
-1.575540 7.943420 1.575540
-0.377891 1.026910 -0.319784
-3.209210 11.559800 -0.890745
3.303370 10.119800 2.295670
-2.178540 12.803800 0.237463
0.407004 2.924920 1.332960
-1.667260 6.710390 1.522250
3.025310 9.953560 2.545230
-0.933355 4.248460 1.465450
-2.134430 6.327480 1.480820
-3.200620 11.231200 -0.711527
-0.561692 2.734080 1.179070
-0.391353 4.171650 1.375600
1.152630 4.699320 1.514160
0.039207 4.492620 1.413830
-1.223820 4.653560 1.499420
-5.740780 13.565500 2.308140
0.817058 2.339690 -0.456777
-0.301041 2.345940 1.030710
-1.218250 5.731400 1.424020
0.199472 1.907860 -0.081735
3.607610 10.108700 2.584890
-3.304970 12.227600 -0.774649
1.040560 3.509340 1.346010
0.133391 2.105530 -0.292986
-0.722007 6.710960 1.570570
-3.403020 12.590300 -0.453415
-0.124930 3.201940 1.278460
-0.951931 4.799360 1.438740
-2.313810 12.560700 -0.452347
-0.017462 3.557280 1.364400
-1.077730 5.245950 1.456370
-2.516710 6.180500 1.357810
-3.568310 12.521500 -0.023903
-2.286740 5.017800 1.319610
3.702910 10.375700 2.279460
-0.340286 2.281160 -0.128910
-0.767454 5.980560 1.485930
-2.663790 12.966200 1.484480
-2.305390 13.012300 1.669800
-2.029610 12.440900 -0.788166
3.218340 9.421800 2.477810
1.964890 6.974270 1.936180
2.251220 7.059330 1.500510
0.821655 3.349910 1.311130
-2.853150 11.827400 1.028260
0.322494 2.439310 1.111660
0.507361 2.422660 -0.472975
-2.003220 11.306700 -0.407188
3.394700 9.117410 2.397760
-0.744227 4.561880 1.401510
0.313502 6.311250 1.798550
-1.972450 6.121650 1.609910
3.264380 10.482700 2.453280
-0.493443 1.876310 -0.196173
-0.295226 3.686920 1.328280
-1.318180 3.508120 1.183380
-1.137560 6.685760 1.564670
-2.429360 5.851450 1.496280
-0.475129 7.159320 1.727060
-3.511370 11.157900 -0.249554
-1.722050 7.838440 1.778150
-0.215872 0.510109 -0.230625
-1.437830 5.045450 1.512510
-0.254897 1.383720 0.091831
-1.024860 2.332630 -0.406061
-0.636684 4.077420 1.375420
-1.374880 6.468290 1.748310
0.022376 2.564030 -0.285761
-2.570850 8.368040 1.659760
0.971860 5.165040 1.586810
-1.924220 5.229000 1.337110
-3.435080 8.435820 1.553970
0.906254 2.981660 1.334350
0.473752 2.341640 -0.228697
-0.720128 2.344000 -0.196702
0.542756 5.978340 1.703680
0.202538 2.230900 1.016680
-2.712550 6.409790 1.592570
0.439482 1.008480 -0.299026
-1.264950 6.157220 1.574460
-0.824279 6.093990 1.736640
-0.913029 3.288790 1.235770
-1.986890 8.236420 1.692100
4.168930 10.127100 2.297340
-0.261772 6.709180 1.715610
0.652135 2.044950 0.931937
1.673930 4.403750 1.519020
-2.219440 11.603700 0.373532
-0.999894 7.031120 1.645490
0.683260 5.772830 1.602640
-2.953230 8.754800 1.674520
-0.360960 6.064470 1.550750
-2.693180 13.109300 1.773170
-3.372400 12.823500 -0.111909
-0.670371 3.051400 1.315920
-0.061228 2.413670 -0.471220
4.146230 9.694320 2.338590
-0.245214 1.016500 0.095361
-3.669780 12.877500 -0.727717
-2.930070 12.916300 -0.641599
-3.718340 12.718300 0.496230
-0.986530 3.751260 1.265400
0.319775 3.274190 1.307300
3.748260 9.860870 2.450030
-0.772644 2.239950 1.020800
-2.463860 8.019810 1.647600
-2.317880 11.282500 0.209247
-0.072912 0.277248 -0.088415
-1.249050 2.791060 1.158770
-0.127957 0.997133 -0.303071
-0.185318 4.042100 1.425180
-2.532430 11.527100 -0.651405
-2.552650 11.252600 0.515896
0.337940 1.941310 0.884707
-0.163630 6.450440 1.649440
-4.607630 13.973100 3.069780
-2.246980 12.682600 -0.716698
-2.964620 11.593700 -0.893356
-2.066350 12.666100 0.407729
-2.296830 6.808910 1.544600
-2.627960 11.229100 -0.634565
-1.065860 2.471570 1.106070
-0.592752 5.177410 1.629330
-2.775840 11.172200 -0.937543
0.241208 1.192230 -0.182503
-0.457078 3.214110 1.334410
-1.645880 4.380240 1.313090
-2.287990 11.137000 -0.097191
-1.402920 7.073090 1.706260
-2.854660 6.263990 1.376150
-1.863260 6.538300 1.624500
-1.850010 5.610320 1.598800
0.123084 2.873020 1.285730
-0.502761 3.535340 1.328410
0.807226 4.290080 1.512620
0.346289 1.989270 -0.290647
-2.214210 11.576400 -0.892029
-0.685590 2.032420 -0.254615
-1.852560 7.915890 1.570080
-3.213820 11.277500 0.286080
-2.197430 12.402900 0.314628
0.649928 4.670680 1.504930
-1.480750 3.249220 1.145620
4.423690 10.151100 2.302770
-0.012624 1.076480 0.086198
0.768573 6.135000 1.613420
0.193778 4.523170 1.594800
0.344142 5.432150 1.588150
0.794514 2.226260 -0.171545
2.901050 10.297100 2.335900
-2.708630 6.651810 1.413890
3.265600 10.004000 2.558130
-2.966690 11.280800 0.363135
-0.168703 2.106840 -0.263938
3.421880 9.588240 2.313000
3.540090 9.313240 2.449260
-0.828134 6.453430 1.556780
2.562800 7.029300 1.444110
-0.273435 5.190370 1.672380
-0.293910 5.579030 1.631090
-3.743670 13.136800 -0.742369
1.118840 5.001570 1.499350
-2.060800 4.522020 1.389260
-1.152050 3.065990 1.175960
0.141907 1.452990 -0.171973
-2.130020 11.136200 0.206536
1.423380 3.669090 1.378660
-2.611000 11.156700 0.206915
3.950520 9.236730 2.361920
-0.491596 6.714310 1.765770
-0.690344 6.855810 1.753100
0.111526 2.245170 -0.096186
-2.371880 11.158800 -0.706942
0.871772 5.446460 1.552110
-2.063020 5.490380 1.524230
-4.967890 13.789400 2.735060
-5.337460 13.637100 2.801620
-0.273006 5.954720 1.740930
-2.460770 6.287230 1.562120
-1.061380 4.150700 1.275190
-1.580730 5.848290 1.495470
-0.907246 5.332120 1.598440
-2.071320 6.581890 1.445990
2.581850 10.224500 2.466470
2.213940 6.942410 1.775240
-2.178000 12.800700 -0.373626
-2.613320 11.895300 2.107500
-1.150820 3.936300 1.357780
4.582360 9.954170 2.545380
-1.618570 6.329720 1.572680
-3.454360 8.162710 1.561270
0.870475 5.686500 1.704680
3.552470 9.743790 2.420940
-3.526270 13.046300 -0.648057
-1.455900 6.626960 1.550910
0.286313 1.133840 0.036499
-3.502140 11.128500 0.282300
-2.601990 13.118500 2.048430
-1.330630 5.685740 1.620300
1.024920 3.735270 1.374540
-5.787710 13.420800 2.948450
-0.483705 4.803670 1.547780
-2.022090 5.994450 1.402880
-4.694720 13.917400 2.563740
-0.031371 2.675130 1.219130
-0.417707 6.294070 1.609460
0.125301 5.602340 1.679450
-4.995410 13.865800 2.947270
-3.659830 12.518200 -0.450817
-0.567448 1.542020 -0.150602
0.064930 4.176740 1.504750
-2.387200 12.480900 0.572210
-1.762170 4.997880 1.314370
-2.046550 12.028100 0.469301
0.121007 3.360090 1.368230
-1.701240 5.675010 1.410010
0.108118 3.704190 1.478990
-1.767270 8.314330 1.708100
-0.728205 7.231810 1.588780
0.521758 1.562200 -0.098970
-1.291390 5.518050 1.451170
-0.552981 5.894540 1.550180
1.743770 4.155230 1.370190
-3.366290 11.229300 -0.404401
-0.156996 6.188930 1.582570
3.060070 10.584500 2.553340
-2.142230 7.925690 1.628260
0.448265 4.022110 1.511310
-3.345610 13.083600 -0.828882
-0.396155 1.258840 -0.028155
0.130400 5.830340 1.533300
-2.649720 5.814280 1.529080
-2.350450 11.850300 0.462363
-2.798910 8.297330 1.645740
2.864300 9.423820 2.409770
0.507807 2.698790 1.207760
-1.694590 5.384800 1.534540
-1.215800 4.379400 1.345450
-3.010600 11.773500 1.185530
-2.624170 8.144310 1.731130
-0.792268 6.920080 1.569820
-0.856944 3.552350 1.362510
0.094358 6.069730 1.685070
1.448010 3.889040 1.401100
-0.367043 0.976826 0.278371
-4.421820 14.050900 2.986620
-2.374770 12.891600 -0.200407
-0.998672 5.035010 1.472040
-0.063187 1.378210 -0.030825
1.833500 7.057850 1.753590
1.863970 4.049070 1.521440
-2.211190 11.148200 -0.325393
-0.556122 2.305330 -0.368997
0.396981 6.266210 1.602330
-0.832589 4.352970 1.304920
-3.068560 12.720300 -0.805867
-2.226470 5.925390 1.386720
-3.428010 12.682800 0.235218
3.204540 7.353490 -1.125650
-0.739847 4.959680 1.450020
-1.548060 6.824130 1.695520
0.280945 1.439050 0.105362
-3.037650 6.665520 1.464370
-0.833009 1.895960 0.712409
3.225830 9.237370 2.295110
-1.170040 6.876630 1.658870
0.506224 5.575950 1.589010
1.570500 5.167100 1.626080
-1.445250 3.692590 1.189780
0.805479 5.261910 1.460800
0.570902 2.080620 -0.103352
-0.200324 2.501740 -0.227126
1.161260 5.545040 1.458270
-3.474920 12.516900 -0.878698
-0.827358 1.992810 -0.098990
-1.782390 6.096520 1.426770
-2.320540 12.597200 0.147727
-1.745250 4.550250 1.397940
0.774678 1.845990 0.811052
0.983966 5.889810 1.591950
-1.417530 6.057040 1.461160
-2.274000 11.464800 0.525628
-0.302861 5.088350 1.487640
2.039060 4.429420 1.494160
-0.221805 6.890350 1.612550
0.585235 1.248810 0.048725
-1.607580 3.947880 1.242390
-0.178635 2.230870 -0.435532
-2.224030 12.553000 -0.195144
-3.147260 8.375930 1.602060
0.571534 1.927540 0.606594
-3.326160 11.376900 -0.798666
0.250935 5.857330 1.755890
-2.008700 11.337700 0.364966
0.046578 5.337310 1.521000
-2.847520 6.248310 1.597760
0.230525 0.559990 -0.262430
1.368090 5.122560 1.535620
0.796586 3.154590 1.234680
-1.120100 5.856160 1.625780
-0.851987 2.469970 -0.378097
0.137076 0.856392 0.068575
-1.946760 4.689030 1.336260
-1.936460 6.975270 1.582340
0.034813 3.989160 1.406520
0.400929 0.937414 0.030176
-2.765050 13.008600 1.940510
0.003949 2.068660 -0.074498
-2.842570 11.783500 2.087690
-5.912880 13.457900 2.669320
-0.197173 0.771078 -0.150537
-0.608561 5.315500 1.475680
2.772180 10.103100 2.364420
-3.586360 12.918300 -0.288928
1.355840 4.689730 1.475850
1.076880 4.032170 1.515090
-1.115470 6.555920 1.724120
-3.437800 12.719000 -0.805782
3.007850 10.144200 2.447110
-0.313738 1.340590 0.304113
-1.558280 4.951660 1.374670
-0.278728 4.682890 1.579660
-0.869135 2.412460 1.099420
-1.231930 6.440800 1.600280
-0.657531 3.864480 1.422090
4.172230 9.398560 2.267240
-0.845867 6.253600 1.599110
-1.373050 6.922540 1.570380
-0.527058 1.849490 0.680593
-2.424340 13.160700 1.780130
-1.180090 3.662500 1.263330
0.263922 2.524290 -0.246536
0.437114 5.208860 1.678340
0.661438 3.959230 1.426390
-2.313790 6.422410 1.503040
-3.492490 12.921300 -0.818601
-0.303963 1.863200 0.849110
-1.719960 4.142750 1.334830
-1.242780 5.151780 1.544380
3.587390 9.437680 2.276680
-6.084760 13.351800 2.648270
1.142210 4.396820 1.550250
-2.342430 12.716000 -0.024274
-4.785810 13.874400 2.949100
-2.042690 5.793460 1.397570
0.316355 3.769840 1.445930
-0.660219 1.832570 -0.091031
-2.571190 12.963200 1.663500
-2.420700 5.613210 1.394650
-0.603910 4.706110 1.410780
0.352303 2.201040 -0.306276
-5.273340 13.748700 2.339310
0.336884 3.449370 1.432080
0.793361 2.547680 1.161040
1.181700 5.282560 1.583590
1.208530 3.618470 1.359640
-2.126030 12.495200 -0.620683
-0.108792 2.372930 1.081410
-2.117950 4.820540 1.445090
-0.545257 4.491380 1.413430
2.710190 9.619640 2.320570
0.508966 2.075070 0.795895
-2.634810 5.996930 1.360410
-1.333410 4.237100 1.270180
0.639533 2.330740 1.062180
-0.041570 1.065430 -0.481691
3.171040 9.714370 2.413620
-0.451319 2.450010 1.116530
-2.426190 12.684700 -0.630094
-2.666620 6.301260 1.429440
-3.378520 12.846700 0.413544
-2.745460 12.916400 1.747080
2.823920 9.767700 2.497700
3.469690 10.157600 2.450350
-2.281760 11.504000 0.213355
-0.602068 5.596140 1.594760
-2.697590 12.691200 -0.630416
-3.633510 12.750300 0.236470
-3.793460 12.654300 -0.715101
-2.389830 12.973300 1.844930
-0.762654 2.899970 1.227230
-1.915180 5.315980 1.514920
-3.286270 12.851500 -0.814179
-0.957568 5.404780 1.421380
-0.504889 3.732700 1.316090
-0.593272 2.194950 -0.169133
-2.118200 6.730880 1.575230
0.557457 3.641670 1.368360
-3.397210 12.568800 0.061698
0.223196 6.197670 1.539870
-2.316570 11.276100 0.439959
-2.253660 11.782700 0.298894
4.306420 9.881980 2.383860
0.827038 1.764790 -0.063555
-3.186350 8.141060 1.557130
1.634400 3.894620 1.463410
-3.642180 12.780700 -0.111535
1.290730 4.832890 1.593650
-2.363440 12.830100 0.325464
-2.280010 6.195850 1.405530
-1.509160 5.436090 1.429620
3.587080 9.062830 2.449580
-1.813590 6.532690 1.435180
-2.261750 5.244640 1.265180
-0.333170 2.596300 -0.343250
0.711144 2.987240 1.288250
0.121620 0.259519 -0.088648
-0.181716 3.053000 1.391330
-1.987110 12.725700 -0.719138
-1.512780 7.909160 1.794200
0.753224 1.981570 -0.207179
-2.934720 11.159200 0.511616
-0.367278 1.195480 0.153410
3.693340 10.130200 2.370760
-4.503920 13.978300 2.574950
5.316080 12.667700 2.422940
-0.845286 4.419360 1.490770
-2.152910 11.255900 -0.021487
-0.658951 1.998330 0.877986
-2.161880 12.705900 -0.544337
-3.341170 8.047660 1.710580
-2.304390 12.509500 -0.023880
0.982043 2.212200 -0.216055
-0.059696 1.302080 -0.208413
-3.472750 12.186100 -0.688645
-0.572551 6.585660 1.636270
-0.644835 6.403860 1.591100
-2.868840 6.652370 1.556860
-3.496900 12.937600 -0.465923
0.261875 2.349700 -0.164951
3.991640 10.085000 2.360180
-0.744720 3.182150 1.195700
-0.911387 5.586520 1.592020
-2.943680 11.847700 1.932840
0.409139 4.189190 1.413120
-2.024210 6.432220 1.598140
-1.301820 4.040310 1.301820
-0.332310 1.055960 -0.081368
-1.095570 3.247800 1.195160
-0.141751 0.666885 -0.312525
-1.502320 6.227660 1.457460
0.552826 1.912180 -0.279383
0.262535 6.128070 1.791610
-3.283920 11.523500 -0.651201
0.189537 2.699920 -0.356949
5.562850 12.531100 2.574410
-3.521320 12.684000 -0.977376
-3.402630 11.350500 -0.099055
0.907247 2.716400 1.237930
-3.373780 7.823260 1.607220
-0.719365 5.318360 1.633920
-2.189580 5.483880 1.362520
-1.097490 6.194540 1.674310
-2.543480 6.631390 1.504330
-1.301340 5.089140 1.375540
2.415660 7.232740 1.640750
-1.083400 5.664260 1.656010
0.643238 2.283130 -0.365443
-3.006990 11.434000 -0.802676
-2.612830 11.517900 -0.966550
0.366124 3.093360 1.259620
-3.520140 11.458000 -0.569158
0.692100 5.234960 1.608300
-2.965630 11.936100 0.873913
-5.178280 13.781100 3.027620
-5.460780 13.676700 3.004680
1.489050 4.263970 1.438350
-3.018100 11.802800 2.257510
-5.709540 13.491700 2.771750
5.205780 12.645800 2.597970
1.220640 4.222090 1.424220
-2.120530 5.107590 1.380530
-1.722370 4.993290 1.496870
3.002510 9.415200 2.271250
-2.791420 11.234900 0.284999
-2.232810 6.929720 1.671670
0.078168 5.028340 1.507380
-1.257860 4.782970 1.363030
-1.411200 5.679790 1.452380
-0.880932 2.250760 -0.250848
-0.786336 4.111150 1.481120
-2.775850 11.861100 1.194350
-0.261881 4.399840 1.384630
-2.250010 11.763600 -0.745256
-0.156144 1.216790 0.089089
-0.813592 6.340100 1.760130
-0.015003 3.056290 1.244530
0.151636 1.552610 -0.002964
-2.215180 12.025200 0.551321
-0.504657 2.456460 -0.462210
-0.536367 1.267440 0.101489
-0.294052 1.971220 -0.260610
-0.278154 2.762350 1.213660
-1.751970 5.992470 1.619700
2.356560 7.055800 1.651270
-0.418403 5.225210 1.527650
-0.897836 6.996600 1.840010
-0.942332 2.067760 0.942332
-0.148626 5.858960 1.540830
-1.098020 4.691790 1.371700
0.012650 6.626760 1.694530
-0.749046 1.736920 0.679816
-0.449683 6.141870 1.705090
-0.465504 4.326790 1.459540
2.259610 6.922220 1.372990
-0.143681 5.664030 1.572440
-1.867980 5.797430 1.609470
0.165521 3.863580 1.391930
-1.409590 3.395180 1.302230
-3.397540 13.286700 -0.841747
-2.800220 8.690720 1.600930
-2.120930 11.513600 -0.729417
-1.421380 6.073490 1.641600
-1.492430 4.326660 1.232990
-4.296630 13.985400 2.873180
1.455620 3.468620 1.330390
-0.198724 1.636930 -0.058951
-4.619740 14.009800 2.878190
-2.144600 11.642100 0.533755
-1.612740 4.675440 1.471360
3.154500 10.378600 2.354390
0.357539 5.093080 1.564710
1.170800 3.018020 1.277190
3.683510 9.495130 2.428000
-2.486670 13.000900 1.488450
-0.700543 3.531930 1.245310
-3.555520 11.298200 0.363695
-2.697710 13.131300 1.594150
0.100452 1.106460 -0.255447
1.514470 4.433670 1.597310
5.060230 12.784800 2.355090
2.774290 10.387800 2.505870
-2.781470 6.103370 1.340870
0.322458 6.491530 1.707180
-1.599930 4.257950 1.436320
-2.880860 11.594900 -0.734569
-1.846430 5.125150 1.460540
-2.934540 12.936000 -0.819533
-5.523960 13.565700 2.786940
-1.947050 8.071240 1.773190
-0.735265 5.729720 1.506840
-3.082190 7.874950 1.617840
-3.348030 13.093100 -0.650380
-3.675060 12.896000 -0.905313
1.630080 4.880640 1.535930
-0.873120 3.730800 1.401850
-0.179266 7.066840 1.653850
-0.257349 3.877770 1.426980
-2.931990 12.924800 1.838030
3.394050 9.936200 2.396940
2.604280 10.024900 2.346120
-0.460007 1.427670 -0.012459
0.825682 2.364390 -0.279844
-3.380120 12.852800 0.063092
-3.738710 12.471600 -0.023808
0.126896 4.347560 1.466550
-2.594230 11.435900 0.290096
4.502250 9.607190 2.317570
-3.392210 12.550300 -0.709225
-1.056220 4.378420 1.476960
0.429226 6.114250 1.697430
-3.889370 12.974200 -0.644477
0.685270 3.783700 1.451240
0.902377 1.925550 -0.121989
-3.521140 11.188900 0.054924
-0.454136 2.465300 -0.257754
-1.806850 6.180190 1.580340
-1.627020 6.548450 1.579700
-2.913300 11.077800 0.356600
-0.360886 6.850380 1.751710
3.062920 7.440410 -0.932110
-2.701830 12.711100 -0.805283
-0.623910 5.139260 1.426750
-0.843882 6.576150 1.681590
-2.360990 11.492300 -0.806768
-2.451280 6.019800 1.452170
-3.459070 12.797700 -0.286230
0.690765 2.451830 -0.409608
-1.911190 4.516180 1.287000
-0.350503 4.787250 1.435100
-2.299650 11.193700 -0.862538
-1.510540 6.261740 1.692480
-2.183910 12.835400 0.063006
-2.123710 6.156780 1.529710
-1.076830 5.629920 1.439630
-0.432939 3.373780 1.267700
-3.564160 13.186500 -0.745176
-2.049770 5.689560 1.537830
4.445630 10.014400 2.415810
-1.997240 7.810550 1.604610
-3.780670 12.611600 0.319922
0.035915 2.310320 -0.369794
0.182778 2.013260 0.917493
0.101712 2.374150 1.004710
0.994848 4.750420 1.566450
0.140555 0.694728 -0.325573
-2.138290 12.567300 0.233075
-3.070790 12.729600 -0.632325
-0.696327 2.212670 -0.307895
-2.709280 11.231000 -0.788423
0.420603 1.532870 0.038885
-2.826220 8.771390 1.802000
-2.630640 11.240600 0.361842
-0.885139 5.933670 1.603800
-3.727900 12.751000 -0.372177
-1.309930 6.604280 1.640890
-3.311440 8.293610 1.527770
0.360213 2.465400 -0.377397
-1.147730 5.399650 1.420030
0.218019 1.362090 -0.039757
2.086300 7.036180 1.545800
-1.076050 4.091670 1.442660
-0.719395 4.228070 1.362320
0.664897 3.286420 1.390770
-0.319581 2.970460 1.329330
-1.486170 3.955200 1.364300
-0.427311 2.619280 1.193680
1.840110 4.384820 1.479120
-2.281340 11.104600 0.281693
-0.240967 5.255900 1.459130
1.182660 3.313850 1.297010
-1.623860 6.007890 1.449300
0.565022 5.404170 1.620050
-2.217420 12.515700 0.488325
-3.274250 11.199300 -0.862969
-2.268230 11.858900 0.624740
-0.718019 5.914460 1.641960
3.238630 7.431700 -0.931018
-3.438510 11.192300 -0.709060
-0.280928 3.231320 1.341550
-0.276681 4.169060 1.501980
-1.167970 3.386040 1.298720
0.050372 3.240290 1.268220
0.677477 1.858200 -0.092303
0.169198 4.698260 1.549250
-1.583380 4.801760 1.297860
0.194042 5.388110 1.655350
-3.576510 11.100000 0.433088
-0.276025 2.273660 -0.300595
-3.297710 11.279600 0.440095
-3.248550 11.111400 0.281866
-0.975618 4.589920 1.478910
-1.357030 5.461790 1.596820
-5.098750 13.855700 2.650160
1.124380 4.870230 1.605960
2.422860 6.938000 1.774120
-2.595170 11.089000 0.508399
-0.791060 3.850550 1.298890
-5.542970 13.612300 2.507540
-0.204717 0.718366 0.067392
-2.628690 11.587800 -0.813471
3.273840 10.266000 2.402560
-3.163210 11.100000 0.433087
-0.869844 4.909640 1.545060
-0.003799 0.773941 -0.096957
0.779326 3.086240 1.406480
-1.369730 4.933860 1.406030
3.151420 10.120000 2.223290
-1.542700 5.276670 1.387690
3.372330 9.449400 2.416310
3.308280 9.269930 2.437870
-0.015458 3.149020 1.409240
-1.901130 5.635880 1.441150
0.803535 2.203950 -0.337375
0.395356 3.155860 1.412310
2.667060 10.266600 2.328970
2.873390 9.938800 2.397560
0.182935 5.079690 1.636720
-1.936410 6.153200 1.395860
-1.401920 4.676550 1.367240
-2.031930 5.407660 1.382790
0.822338 5.137610 1.655380
-2.704320 11.921200 1.364830
-2.210890 12.001900 0.386350
